ply
format ascii 1.0
element vertex 212
property float x
property float y
property float z
property uchar red
property uchar green
property uchar blue
end_header
-0.516507 -2.17501 7.26955 17 43 58
0.816112 -1.87176 6.34308 137 118 137
-0.607222 -2.13205 7.35383 92 91 73
-0.547608 -2.10042 7.30048 147 138 123
-1.08391 -2.19238 7.81778 63 46 62
0.548077 -1.8308 6.54984 81 64 96
0.397732 -1.39325 6.59764 72 55 71
0.360979 -1.37948 6.6211 109 96 113
-2.19839 -1.78319 8.62935 77 56 73
1.1722 -1.16461 6.00256 69 44 63
1.42503 -1.0137 5.7576 106 93 103
-2.08275 -0.262257 8.3528 122 99 115
-0.776319 -0.201426 6.88281 138 122 107
-3.47072 -0.254997 9.31475 119 127 166
1.62106 0.0482089 5.4798 75 52 70
-2.59172 0.306465 8.64882 68 56 76
-0.373777 0.256534 6.55375 70 25 32
-0.982753 0.39452 6.99615 71 28 38
-0.807733 0.375376 6.65125 175 165 155
-0.826364 0.402427 6.6277 179 179 171
-0.791533 0.430735 6.59563 195 193 180
-0.777634 0.43465 6.61897 194 191 176
-0.789428 0.445917 6.59801 109 103 107
-0.828942 0.489838 6.74661 125 124 130
-1.03035 0.586642 7.01204 62 19 29
1.12673 0.492252 5.80006 83 69 95
-2.99177 0.759744 8.87694 84 71 97
-2.594 0.925138 8.554 50 41 68
-2.54819 1.02431 8.48331 158 164 212
-2.59751 1.08731 8.52518 52 53 107
-2.50928 1.13314 8.44469 109 126 178
-2.57719 1.14512 8.51883 121 111 161
-2.51709 1.13648 8.45053 122 128 180
-0.229062 0.996269 6.0898 74 37 54
-3.56649 2.08655 8.80688 74 84 96
-3.26875 2.08813 8.58974 161 161 189
2.28655 1.48077 5.27843 30 27 54
1.71576 1.60068 5.08085 39 43 78
1.71561 1.60442 5.06416 134 172 234
1.68266 1.61826 5.09142 50 39 56
1.82643 1.58813 4.96834 56 70 141
1.6985 1.62551 5.07849 18 36 76
1.86145 1.60817 4.95196 97 111 186
-1.58956 1.73228 5.25029 152 184 245
1.6933 1.70157 5.06855 52 34 48
1.73161 1.74973 5.04152 104 121 167
1.74722 1.7418 5.03424 53 61 136
1.68055 1.72279 5.08271 45 32 49
1.6932 1.70186 5.06833 52 34 48
1.78911 1.66509 4.99323 146 166 229
1.83617 1.58316 4.96267 146 176 240
-1.94038 1.77514 5.62751 112 120 139
1.69715 1.59139 5.09293 40 22 34
0.633956 -1.93277 6.49707 67 49 71
-0.607037 -2.1318 7.35755 80 76 65
-3.22795 2.08634 8.59991 167 183 217
1.10627 -1.7023 6.12853 67 50 69
-0.46294 -1.8233 6.734 100 57 76
-3.62102 1.92229 9.01584 64 90 125
-3.48737 1.27886 9.14461 39 46 75
-2.50592 1.15781 8.46644 33 35 60
-2.49691 1.1142 8.48543 16 24 70
-0.175501 -0.976667 6.54235 46 20 29
-2.47838 1.05932 8.43464 53 53 89
1.14455 -0.748406 5.95484 55 36 55
-2.54983 -1.03904 8.79336 62 45 55
-3.50738 1.05337 9.15542 76 86 113
-2.50149 0.96681 8.50087 149 175 236
-1.03612 0.690171 7.01716 79 34 41
-0.993944 0.584428 6.99725 73 27 37
-0.549054 0.532628 6.58637 78 53 49
-3.48417 -0.244486 9.33636 25 36 82
2.54997 -0.080637 5.62456 110 124 169
-0.64914 0.0114221 6.86314 201 191 164
-0.718756 0.499233 6.60335 56 44 54
-0.000168603 0.0912776 6.44211 63 30 39
-0.76224 0.164514 6.76201 213 207 183
-0.655684 0.172665 6.7473 168 155 136
-0.751425 0.184527 6.74349 166 151 128
-0.719192 0.189725 6.74152 166 151 130
-0.793145 0.432289 6.60528 195 193 180
-0.746827 0.415804 6.6247 127 111 112
-0.146505 0.39527 6.52164 66 24 36
1.7837 1.74925 4.97179 98 106 125
-2.36019 -2.19712 8.77857 80 54 67
-1.56461 -1.19834 8.05598 129 103 116
-1.84438 1.40208 5.69115 79 46 67
1.56729 1.47299 5.34109 78 62 75
0.997261 -0.534537 6.0759 113 112 128
-1.33543 0.959902 6.90376 86 45 61
1.60921 -0.848219 5.60981 87 68 90
-0.673028 1.34851 5.16802 138 91 107
-3.62031 1.92004 9.01377 76 96 129
1.85576 1.72541 4.94063 135 136 193
0.221083 0.845432 5.75924 69 32 39
-1.92351 1.03308 7.35545 78 44 58
-3.48112 1.27543 9.1261 28 32 67
-0.869251 0.896497 6.55584 52 54 103
-3.50223 1.23642 9.1317 77 100 131
1.73051 1.74786 5.03858 104 121 167
-0.593307 -2.12814 7.34467 134 131 116
-1.94758 1.77603 5.62428 113 114 134
1.72253 1.75305 5.05352 11 26 47
1.62364 0.643652 5.39711 128 114 129
-2.50204 0.930166 8.46536 107 135 198
-2.52246 0.931859 8.50473 91 106 161
-2.5726 0.935211 8.53968 110 106 157
-2.5109 0.921563 8.49538 39 43 78
1.74736 1.73929 5.03454 52 49 128
-2.49935 0.911288 8.48604 38 31 49
2.56569 0.503256 5.51365 159 173 210
1.40212 -1.4764 5.84117 55 31 55
0.467445 0.518813 5.89034 66 39 48
0.409555 0.523752 5.93631 96 53 73
-0.568687 0.548588 6.57647 54 29 35
-0.427124 0.529331 6.54852 64 20 33
-0.239914 -1.58424 6.61822 127 71 80
-0.383313 -1.60749 6.72499 78 35 45
-0.598979 0.521112 6.57208 179 166 160
1.68186 1.72348 5.08928 47 30 46
-0.679888 0.481561 6.63069 98 79 72
1.69494 1.70264 5.07322 52 34 48
-0.66889 0.466853 6.65833 102 86 86
-0.855939 0.425443 6.60988 153 141 143
-0.820011 0.3788 6.65203 125 115 113
0.195481 0.335717 6.27195 89 40 46
0.101894 0.32932 6.31714 58 21 28
-0.677643 0.326473 6.81699 144 128 102
-0.375519 0.254432 6.53534 81 36 43
-0.780367 0.154688 6.75711 209 195 168
-1.59256 1.73559 5.25829 152 184 245
1.61966 0.0504183 5.47887 75 51 67
-0.682507 -0.00336047 6.86528 141 126 107
0.965617 1.06832 5.8538 83 71 91
-0.76239 -0.209993 6.85393 61 30 35
1.87305 1.70236 4.93201 122 121 187
-2.50106 0.912234 8.49484 41 30 47
-2.57571 0.940111 8.55004 150 158 220
-2.52883 0.936958 8.51733 146 166 229
1.67616 1.71666 5.07084 53 32 49
1.77741 1.66181 5.00034 149 169 238
1.78392 1.65531 5.00103 19 37 111
-1.80214 1.73559 5.25605 167 178 232
-2.61568 1.11392 8.52465 51 44 75
-2.48741 1.11543 8.46636 26 29 64
-2.53497 1.13909 8.50259 153 164 218
-0.642087 0.164795 6.75352 181 167 140
1.69464 1.62044 5.06925 11 27 63
1.7339 1.60598 5.04556 51 45 119
-0.669282 0.465822 6.64839 102 86 86
-0.771383 0.433878 6.60162 210 207 192
-0.797995 0.430734 6.61811 192 192 180
-0.811436 0.402381 6.62703 96 94 97
-4.27806 -2.14059 9.79678 45 31 54
-0.546304 -2.10812 7.32494 141 129 113
1.10012 -1.6945 6.09767 67 50 69
-0.238781 -1.58388 6.62196 138 82 91
-0.891287 0.916118 6.60849 128 133 173
-0.736654 0.179104 6.77385 99 81 71
-0.178152 -0.971077 6.51443 40 19 24
-0.80606 0.375329 6.65089 177 169 158
0.295343 0.841378 5.71711 74 34 43
-0.686101 1.35465 5.14913 89 48 66
0.389607 -1.36329 6.58928 63 49 66
-3.51722 1.82926 9.07576 73 83 108
-0.471212 0.163927 6.65349 71 26 31
-0.654998 0.352514 6.79272 196 184 160
1.86769 1.61585 4.95379 148 168 231
2.38186 1.31496 5.34334 112 133 164
2.43085 1.28645 5.37226 74 97 138
-0.6456 0.164254 6.74667 178 162 139
-3.06029 -1.7215 9.21907 77 77 115
-2.56576 1.03625 8.49242 29 33 70
-2.61286 0.943837 8.58498 29 37 73
1.38635 -1.47301 5.84513 130 108 131
-0.569393 0.546637 6.56405 49 28 35
-0.289868 -1.62265 6.6641 91 38 46
-0.585171 -0.928464 6.62655 48 21 28
1.60731 0.0588903 5.49499 132 114 126
1.7943 1.66329 4.99279 149 174 240
1.85726 1.5709 4.95757 46 33 51
-0.762248 0.506516 6.59664 76 54 40
-2.53006 1.13333 8.46623 153 163 216
0.221623 0.846083 5.7651 85 40 47
-0.826117 0.390371 6.68324 111 105 107
-3.60853 1.97634 8.98347 88 89 110
-0.660041 0.484478 6.63852 166 157 142
-0.651361 0.294517 6.79688 149 137 113
1.86583 1.55908 4.93326 48 34 49
-0.680912 0.00138539 6.84838 147 130 112
-0.591136 0.928477 6.34433 71 41 53
1.86096 1.57457 4.96051 29 20 37
-0.715066 0.500492 6.6417 79 63 64
1.85116 1.58575 4.9628 158 179 242
-2.49052 0.940261 8.49147 15 28 73
0.186275 -1.38371 6.72817 68 38 48
-0.755128 0.411912 6.61694 126 113 104
-0.541727 0.555497 6.61699 133 117 118
-1.60435 1.7384 5.25982 187 204 255
1.8768 1.59814 4.95131 15 21 35
1.71366 1.61113 5.05469 164 184 253
-3.4879 1.03828 9.13752 25 30 52
-0.593681 0.516276 6.54597 186 177 170
-0.767539 0.509856 6.5891 54 35 28
-0.710606 0.49561 6.61313 74 58 59
-0.76817 0.166839 6.74458 198 184 158
-0.754023 -0.139492 6.85363 49 23 22
0.153347 -1.32841 6.73441 41 21 23
-0.719517 0.316501 6.77853 124 102 78
1.06899 0.883437 5.8073 60 45 64
-3.51614 2.09257 9.05896 119 106 124
-3.61972 1.98635 8.99694 93 84 111
